"X","Y","Z","Intensity","ReturnNumber","NumberOfReturns","ScanDirectionFlag","EdgeofFlightLine","Classification","ScanAngleRank","UserData","PointSourceID","gpstime","Range"
5673376.9960,3704833.6560,1479.4010,43,1,2,0,0,5,12,0,526,53965583.74809090,981.5785
5673378.7010,3704835.0230,1441.2780,115,2,2,0,0,8,12,0,526,53965583.74809090,1019.7640
5673347.0040,3704857.0320,1499.8400,206,1,1,0,0,5,12,0,526,53965583.74809480,961.3400
5673376.5280,3704833.1720,1482.8460,199,1,1,0,0,5,12,0,526,53965583.74809480,978.1013
5673346.6940,3704856.6550,1500.1030,205,1,1,0,0,5,12,0,526,53965583.74809890,961.0506
5673376.2190,3704832.7950,1482.8790,102,1,2,0,0,5,12,0,526,53965583.74809890,978.0418
5673377.1980,3704833.5680,1461.2250,34,2,2,0,0,5,12,0,526,53965583.74809890,999.7316
5673346.3850,3704856.2780,1500.4640,159,1,1,0,0,5,11,0,526,53965583.74810290,960.6636
5673375.9410,3704832.4530,1482.0910,215,1,1,0,0,5,11,0,526,53965583.74810290,978.8047
5673346.0970,3704856.1320,1497.0850,153,1,1,0,0,5,11,0,526,53965583.74810700,964.0238
5673375.6300,3704832.1080,1481.9930,166,1,1,0,0,5,11,0,526,53965583.74810700,978.8774
5673345.8200,3704855.7570,1496.8550,180,1,1,0,0,5,11,0,526,53965583.74811100,964.2278
5673375.3200,3704831.7310,1481.9600,120,1,2,0,0,5,11,0,526,53965583.74811100,978.8845
5673376.2040,3704832.4330,1461.7500,42,2,2,0,0,5,11,0,526,53965583.74811100,999.1259
5673345.5880,3704855.8100,1489.9650,135,1,1,0,0,5,11,0,526,53965583.74811490,971.1056
5673374.5030,3704831.0000,1494.0660,154,1,2,0,0,5,11,0,526,53965583.74811490,966.7371
5673375.0090,3704831.3870,1481.5660,13,2,2,0,0,5,11,0,526,53965583.74811490,979.2532
5673345.5180,3704856.5300,1471.5270,131,1,1,0,0,5,11,0,526,53965583.74811900,989.5520
5673374.1920,3704830.6560,1494.2630,160,1,1,0,0,5,11,0,526,53965583.74811900,966.5159
5673345.1310,3704855.7540,1478.5150,170,1,1,0,0,5,11,0,526,53965583.74812300,982.5267
5673373.6930,3704830.1380,1498.2660,117,1,1,0,0,5,11,0,526,53965583.74812300,962.4808
5673344.8200,3704855.4100,1478.2850,186,1,1,0,0,5,11,0,526,53965583.74812700,982.7330
5673373.4150,3704829.7950,1498.0690,176,1,1,0,0,5,11,0,526,53965583.74812700,962.6550
5673344.4560,3704854.8000,1482.4190,130,1,1,0,0,5,11,0,526,53965583.74813100,978.5670
5673373.1680,3704829.4870,1496.2970,52,1,2,0,0,5,11,0,526,53965583.74813100,964.4046
5673374.5270,3704830.5420,1462.7670,77,2,2,0,0,5,11,0,526,53965583.74813100,997.9786
5673344.0900,3704854.2560,1485.5360,64,1,1,0,0,5,11,0,526,53965583.74813510,975.4204
5673372.8260,3704829.1090,1497.2160,142,1,2,0,0,5,11,0,526,53965583.74813510,963.4609
5673373.4590,3704829.5680,1481.3370,12,2,2,0,0,5,11,0,526,53965583.74813510,979.3591
5673343.8410,3704853.9810,1483.8300,114,1,1,0,0,5,11,0,526,53965583.74813910,977.1055
5673372.4840,3704828.7300,1497.8720,186,1,1,0,0,5,11,0,526,53965583.74813910,962.7801
5673343.4700,3704853.5350,1485.4050,157,1,1,0,0,5,11,0,526,53965583.74814310,975.5042
5673372.2050,3704828.3870,1497.4130,133,1,1,0,0,5,11,0,526,53965583.74814310,963.2168
5673343.2700,3704853.5910,1477.8590,122,1,1,0,0,5,11,0,526,53965583.74814710,983.0393
5673371.9270,3704828.0450,1496.5270,192,1,1,0,0,5,11,0,526,53965583.74814710,964.0802
5673342.8230,3704852.6810,1487.8330,147,1,1,0,0,5,11,0,526,53965583.74815120,973.0263
5673371.6160,3704827.7000,1496.5600,43,1,1,0,0,5,11,0,526,53965583.74815120,964.0246
5673342.5140,3704852.3040,1488.1610,194,1,1,0,0,5,11,0,526,53965583.74815510,972.6753
5673371.3070,3704827.3230,1496.7570,185,1,1,0,0,5,11,0,526,53965583.74815510,963.8046
5673342.2030,3704851.9600,1487.5370,154,1,1,0,0,5,11,0,526,53965583.74815920,973.2768
5673370.9960,3704826.9790,1496.8880,165,1,1,0,0,5,11,0,526,53965583.74815920,963.6515
5673341.8920,3704851.6160,1487.3410,76,1,2,0,0,5,11,0,526,53965583.74816320,973.4511
5673342.0520,3704852.3460,1473.4950,31,2,2,0,0,5,11,0,526,53965583.74816320,987.3173
5673370.6860,3704826.6020,1496.7890,145,1,1,0,0,5,11,0,526,53965583.74816320,963.7276
5673341.5810,3704851.2710,1486.5530,157,1,1,0,0,5,11,0,526,53965583.74816730,974.2168
5673370.3750,3704826.2580,1496.8880,133,1,2,0,0,5,11,0,526,53965583.74816730,963.6070
5673370.9780,3704826.6830,1481.3370,17,2,2,0,0,5,11,0,526,53965583.74816730,979.1754
5673341.3550,3704851.1940,1481.5660,77,1,2,0,0,5,11,0,526,53965583.74817120,979.1907
5673341.5470,3704852.5830,1454.6310,13,2,2,0,0,5,11,0,526,53965583.74817120,1006.1621
5673370.0660,3704825.8810,1497.1500,97,1,2,0,0,5,11,0,526,53965583.74817120,963.3229
5673372.3800,3704827.5420,1436.3240,55,2,2,0,0,8,11,0,526,53965583.74817120,1024.2155
5673340.9900,3704850.6170,1485.2080,68,1,2,0,0,5,11,0,526,53965583.74817530,975.5205
5673341.2360,3704852.2390,1454.2700,8,2,2,0,0,5,11,0,526,53965583.74817530,1006.5019
5673369.7860,3704825.5710,1495.6080,99,1,2,0,0,5,11,0,526,53965583.74817530,964.8441
5673370.2630,3704825.8910,1483.6990,56,2,2,0,0,5,11,0,526,53965583.74817530,976.7669
5673340.6790,3704850.2730,1485.3060,92,1,1,0,0,5,11,0,526,53965583.74817930,975.4022
5673369.4130,3704825.1580,1497.3800,191,1,1,0,0,5,11,0,526,53965583.74817930,963.0487
5673340.3370,3704849.8940,1485.3720,124,1,1,0,0,5,11,0,526,53965583.74818340,975.3140
5673369.1350,3704824.8150,1496.9210,133,1,2,0,0,5,11,0,526,53965583.74818340,963.4877
5673369.6730,3704825.2040,1482.1570,27,2,2,0,0,5,11,0,526,53965583.74818340,978.2666
5673340.0500,3704849.7160,1481.6970,103,1,1,0,0,5,11,0,526,53965583.74818730,978.9728
5673368.7930,3704824.4370,1497.6100,180,1,1,0,0,5,11,0,526,53965583.74818730,962.7768
5673339.8400,3704849.9680,1469.8540,113,1,2,0,0,5,11,0,526,53965583.74819140,990.8114
5673339.9660,3704850.7300,1454.2700,17,2,2,0,0,5,11,0,526,53965583.74819140,1006.4145
5673368.5140,3704824.0940,1496.8880,177,1,1,0,0,5,11,0,526,53965583.74819140,963.4789
5673339.5310,3704849.5910,1470.1490,186,1,1,0,0,5,11,0,526,53965583.74819540,990.4956
5673368.1740,3704823.6830,1498.1670,202,1,1,0,0,5,11,0,526,53965583.74819540,962.1783
5673339.2220,3704849.2140,1469.9850,223,1,1,0,0,5,11,0,526,53965583.74819930,990.6385
5673367.8630,3704823.3380,1498.1340,59,1,2,0,0,5,11,0,526,53965583.74819930,962.1914
5673370.1160,3704824.8980,1435.2080,33,2,2,0,0,8,11,0,526,53965583.74819930,1025.1769
5673338.9120,3704848.8370,1470.1820,158,1,1,0,0,5,11,0,526,53965583.74820340,990.4210
5673367.8070,3704823.1390,1491.1130,17,1,2,0,0,5,11,0,526,53965583.74820340,969.1988
5673369.8070,3704824.5210,1434.7820,116,2,2,0,0,8,11,0,526,53965583.74820340,1025.5821
5673338.6010,3704848.4920,1469.8210,170,1,1,0,0,5,11,0,526,53965583.74820740,990.7627
5673367.4960,3704822.7940,1490.8180,211,1,1,0,0,5,11,0,526,53965583.74820740,969.4740
5673338.2850,3704848.2460,1466.8350,168,1,1,0,0,5,11,0,526,53965583.74821150,993.7312
5673367.1850,3704822.4500,1490.5890,168,1,2,0,0,5,11,0,526,53965583.74821150,969.6836
5673369.1860,3704823.8000,1433.8960,12,2,2,0,0,8,11,0,526,53965583.74821150,1026.4279
5673337.9520,3704847.7040,1470.3790,189,1,1,0,0,5,11,0,526,53965583.74821540,990.1633
5673366.8760,3704822.0730,1490.5890,113,1,2,0,0,5,11,0,526,53965583.74821540,969.6639
5673368.8460,3704823.3880,1433.7650,39,2,2,0,0,8,11,0,526,53965583.74821540,1026.5372
5673337.6440,3704847.2940,1471.6580,193,1,1,0,0,5,11,0,526,53965583.74821950,988.8645
5673366.5980,3704821.7300,1490.3260,156,1,2,0,0,5,11,0,526,53965583.74821950,969.9091
5673368.5360,3704823.0110,1433.6000,25,2,2,0,0,8,11,0,526,53965583.74821950,1026.6826
5673337.2110,3704846.1230,1488.0620,60,1,2,0,0,5,11,0,526,53965583.74822350,972.4214
5673337.3020,3704846.9160,1471.5920,60,2,2,0,0,5,11,0,526,53965583.74822350,988.9107
5673366.2880,3704821.3530,1490.3590,143,1,2,0,0,5,11,0,526,53965583.74822350,969.8569
5673368.2270,3704822.6340,1433.3380,8,2,2,0,0,8,11,0,526,53965583.74822350,1026.9252
5673336.9010,3704845.7460,1488.1940,158,1,1,0,0,5,11,0,526,53965583.74822750,972.2703
5673365.9460,3704820.9750,1490.4570,162,1,1,0,0,5,11,0,526,53965583.74822750,969.7388
5673336.5940,3704845.3360,1489.1780,167,1,1,0,0,5,11,0,526,53965583.74823150,971.2669
5673367.5430,3704821.8770,1433.4690,48,2,2,0,0,3,11,0,526,53965583.74823150,1026.7543
5673365.6680,3704820.6320,1490.1950,43,1,2,0,0,5,11,0,526,53965583.74823150,969.9837
5673336.2830,3704844.9920,1488.7840,70,1,2,0,0,5,11,0,526,53965583.74823560,971.6432
5673336.3750,3704845.7520,1472.6420,53,2,2,0,0,5,11,0,526,53965583.74823560,987.8033
5673365.0390,3704820.0750,1499.7090,130,1,1,0,0,5,11,0,526,53965583.74823560,960.4442
5673335.9980,3704844.7800,1485.5360,39,1,2,0,0,5,11,0,526,53965583.74823960,974.8769
5673336.0560,3704845.5710,1468.5080,81,2,2,0,0,5,11,0,526,53965583.74823960,991.9233
5673364.7610,3704819.7320,1498.2660,185,1,1,0,0,5,11,0,526,53965583.74823960,961.8695
5673335.6870,3704844.4360,1485.0770,140,1,1,0,0,5,11,0,526,53965583.74824360,975.3186
5673364.4520,3704819.3550,1498.3970,118,1,2,0,0,5,11,0,526,53965583.74824360,961.7206
5673366.6150,3704820.7460,1431.9600,10,2,2,0,0,8,11,0,526,53965583.74824360,1028.2073
5673335.3450,3704844.0570,1485.1750,50,1,2,0,0,5,10,0,526,53965583.74824760,975.2025
5673335.4130,3704844.6520,1472.7080,108,2,2,0,0,5,10,0,526,53965583.74824760,987.6838
5673364.0790,3704818.9420,1500.9560,115,1,1,0,0,5,10,0,526,53965583.74824760,959.1430
5673335.0500,3704843.3850,1492.1630,72,1,1,0,0,5,10,0,526,53965583.74825170,968.1905
5673363.7370,3704818.5630,1502.0390,136,1,1,0,0,5,10,0,526,53965583.74825170,958.0421
5673334.7410,3704843.0080,1492.4260,156,1,1,0,0,5,10,0,526,53965583.74825570,967.9102
5673363.3930,3704818.2180,1502.4980,222,1,1,0,0,5,10,0,526,53965583.74825570,957.5656
5673334.4300,3704842.6640,1491.7370,119,1,2,0,0,5,10,0,526,53965583.74825970,968.5827
5673334.4760,3704844.3420,1454.3350,9,2,2,0,0,5,10,0,526,53965583.74825970,1006.0223
5673363.1160,3704817.8420,1502.1700,153,1,1,0,0,5,10,0,526,53965583.74825970,957.8774
5673334.1070,3704842.5490,1485.9300,9,1,2,0,0,5,10,0,526,53965583.74826370,974.3784
5673334.1670,3704843.9650,1454.2700,126,2,2,0,0,5,10,0,526,53965583.74826370,1006.0701
5673362.8690,3704817.5340,1500.1360,209,1,1,0,0,5,10,0,526,53965583.74826370,959.8965
5673333.8250,3704843.5860,1454.2370,148,1,1,0,0,5,10,0,526,53965583.74826780,1006.0861
5673362.6220,3704817.2260,1498.4300,170,1,2,0,0,5,10,0,526,53965583.74826780,961.5880
5673363.4190,3704817.6930,1471.1000,23,2,2,0,0,5,10,0,526,53965583.74826780,988.9335
5673333.5170,3704843.1760,1454.6630,158,1,1,0,0,5,10,0,526,53965583.74827170,1005.6425
5673362.3130,3704816.8490,1497.5440,212,1,1,0,0,5,10,0,526,53965583.74827170,962.4571
5673333.1790,3704841.4180,1487.4390,85,1,2,0,0,5,10,0,526,53965583.74827580,972.8210
5673333.2060,3704842.8320,1454.2040,17,2,2,0,0,5,10,0,526,53965583.74827580,1006.0861
5673362.0020,3704816.5050,1497.6750,162,1,1,0,0,5,10,0,526,53965583.74827580,962.3106
5673332.8700,3704841.0410,1487.3080,15,1,3,0,0,5,10,0,526,53965583.74827980,972.9358
5673332.8650,3704843.0770,1439.5720,88,2,3,0,0,5,10,0,526,53965583.74827980,1020.7152
5673332.8170,3704844.0270,1417.7210,14,3,3,0,0,3,10,0,526,53965583.74827980,1042.5867
5673361.7230,3704816.1620,1497.3140,128,1,1,0,0,5,10,0,526,53965583.74827980,962.6570
5673332.5570,3704840.7300,1485.8970,47,1,3,0,0,5,10,0,526,53965583.74828390,974.3324
5673332.5230,3704842.6990,1439.7360,49,2,3,0,0,5,10,0,526,53965583.74828390,1020.5354
5673332.5060,3704843.6830,1416.6060,19,3,3,0,0,8,10,0,526,53965583.74828390,1043.6863
5673361.5090,3704815.8560,1493.6400,121,1,2,0,0,5,10,0,526,53965583.74828390,966.3173
5673361.9870,3704816.1430,1476.9400,32,2,2,0,0,5,10,0,526,53965583.74828390,983.0265
5673332.2480,3704840.3530,1486.6190,167,1,1,0,0,5,10,0,526,53965583.74828790,973.5954
5673361.2000,3704815.4790,1493.4760,147,1,2,0,0,5,10,0,526,53965583.74828790,966.4658
5673361.6780,3704815.7660,1476.7430,10,2,2,0,0,5,10,0,526,53965583.74828790,983.2081
5673331.9390,3704839.9760,1486.6190,75,1,2,0,0,5,10,0,526,53965583.74829190,973.5800
5673331.8220,3704842.9260,1416.1790,13,2,2,0,0,8,10,0,526,53965583.74829190,1044.0817
5673361.3360,3704815.3870,1477.6620,180,1,1,0,0,5,10,0,526,53965583.74829190,982.2735
5673331.6310,3704839.5660,1488.0290,150,1,1,0,0,5,10,0,526,53965583.74829590,972.1546
5673360.8990,3704814.9380,1482.5830,122,1,1,0,0,5,10,0,526,53965583.74829590,977.3354
5673331.2890,3704839.1870,1488.1280,112,1,1,0,0,5,10,0,526,53965583.74829980,972.0407
5673359.9820,3704814.2340,1504.2700,64,1,2,0,0,5,10,0,526,53965583.74829980,955.6228
5673360.5880,3704814.5930,1481.9600,77,2,2,0,0,5,10,0,526,53965583.74829980,977.9439
5673330.9830,3704838.7450,1490.3260,125,1,1,0,0,5,10,0,526,53965583.74830390,969.8272
5673359.6400,3704813.8560,1505.5490,139,1,1,0,0,5,10,0,526,53965583.74830390,954.3291
5673330.6730,3704838.3680,1489.9650,102,1,1,0,0,5,10,0,526,53965583.74830790,970.1735
5673359.3290,3704813.5110,1504.8270,171,1,1,0,0,5,10,0,526,53965583.74830790,955.0370
5673330.3620,3704838.0230,1490.1950,119,1,1,0,0,5,10,0,526,53965583.74831200,969.9307
5673359.0520,3704813.1360,1504.9910,191,1,1,0,0,5,10,0,526,53965583.74831200,954.8601
5673330.0430,3704837.8430,1485.4050,82,1,1,0,0,5,10,0,526,53965583.74831600,974.7108
5673359.3490,3704813.1180,1481.5660,20,1,3,0,0,5,10,0,526,53965583.74831600,978.2819
5673359.7970,3704813.3380,1463.7190,27,2,3,0,0,5,10,0,526,53965583.74831600,996.1358
5673360.7550,3704813.8790,1428.3510,94,3,3,0,0,8,10,0,526,53965583.74831600,1031.5209
5673329.6840,3704837.7920,1477.3010,148,1,1,0,0,5,10,0,526,53965583.74832000,982.8078
5673359.0070,3704812.7400,1483.0430,126,1,2,0,0,5,10,0,526,53965583.74832000,976.7912
5673360.4460,3704813.5020,1428.2200,40,2,2,0,0,8,10,0,526,53965583.74832000,1031.6384
5673329.3720,3704837.4800,1476.0220,149,1,1,0,0,5,10,0,526,53965583.74832400,984.0748
5673358.5040,3704812.2870,1489.4070,46,1,1,0,0,5,10,0,526,53965583.74832400,970.4107
5673329.0640,3704837.0710,1476.5140,103,1,2,0,0,5,10,0,526,53965583.74832810,983.5687
5673328.8280,3704839.1280,1423.1350,19,2,2,0,0,4,10,0,526,53965583.74832810,1036.9878
5673358.1310,3704811.8740,1492.5240,58,1,2,0,0,5,10,0,526,53965583.74832810,967.2799
5673359.7960,3704812.7140,1427.9250,22,2,2,0,0,8,10,0,526,53965583.74832810,1031.9058
5673328.7530,3704836.7260,1476.5470,67,1,1,0,0,5,10,0,526,53965583.74833200,983.5240
5673357.8200,3704811.5300,1492.0650,167,1,1,0,0,5,10,0,526,53965583.74833200,967.7264
5673328.1790,3704838.3400,1422.9710,68,1,1,0,0,4,10,0,526,53965583.74833610,1037.1248
5673357.4780,3704811.1510,1493.8040,160,1,1,0,0,5,10,0,526,53965583.74833610,965.9747
5673327.8300,3704838.0920,1419.4270,108,1,1,0,0,3,10,0,526,53965583.74834010,1040.6588
5673357.1680,3704810.7740,1493.8690,128,1,1,0,0,5,10,0,526,53965583.74834010,965.8975
5673327.7460,3704835.8540,1470.0500,171,1,2,0,0,5,10,0,526,53965583.74834420,989.9888
5673327.4940,3704837.5820,1422.3140,5,2,2,0,0,4,10,0,526,53965583.74834420,1037.7567
5673356.9210,3704810.4660,1490.4900,119,1,1,0,0,5,10,0,526,53965583.74834420,969.2655
5673327.4390,3704835.4440,1470.8380,215,1,1,0,0,5,10,0,526,53965583.74834810,989.1881
5673356.3880,3704809.9790,1500.4970,70,1,2,0,0,5,10,0,526,53965583.74834810,959.2437
5673356.6760,3704810.1250,1488.0290,38,2,2,0,0,5,10,0,526,53965583.74834810,971.7158
5673327.1290,3704835.0670,1470.7070,224,1,1,0,0,5,10,0,526,53965583.74835220,989.3072
5673356.0450,3704809.6000,1501.7110,73,1,2,0,0,5,10,0,526,53965583.74835220,958.0177
5673356.3030,3704809.7120,1490.3590,8,2,2,0,0,5,10,0,526,53965583.74835220,969.3732
5673326.8230,3704834.6250,1472.8720,194,1,1,0,0,5,10,0,526,53965583.74835620,987.1297
5673355.7340,3704809.2560,1501.0870,188,1,1,0,0,5,10,0,526,53965583.74835620,958.6305
5673326.5120,3704834.2810,1472.0850,142,1,2,0,0,5,10,0,526,53965583.74836030,987.9061
5673326.4220,3704834.7690,1458.2070,17,2,2,0,0,5,10,0,526,53965583.74836030,1001.7930
5673355.4250,3704808.8790,1502.4000,163,1,1,0,0,5,10,0,526,53965583.74836030,957.3069
5673326.1680,3704833.9350,1471.7560,164,1,1,0,0,5,10,0,526,53965583.74836420,988.2251
5673355.1140,3704808.5350,1501.3170,127,1,1,0,0,5,10,0,526,53965583.74836420,958.3790
5673325.8610,3704833.5250,1472.2160,133,1,1,0,0,5,10,0,526,53965583.74836830,987.7534
5673356.5100,3704808.8680,1425.6610,21,3,3,0,0,8,10,0,526,53965583.74836830,1034.0470
5673354.8370,3704808.1590,1500.1360,77,1,3,0,0,5,10,0,526,53965583.74836830,959.5499
5673355.1260,3704808.3050,1486.7500,59,2,3,0,0,5,10,0,526,53965583.74836830,972.9397
5673325.5890,3704833.0510,1475.2340,226,1,1,0,0,5,10,0,526,53965583.74837230,984.7231
5673354.5260,3704807.8150,1500.3650,135,1,1,0,0,5,10,0,526,53965583.74837230,959.3109
5673325.2450,3704832.7050,1475.0370,160,1,1,0,0,5,10,0,526,53965583.74837630,984.9109
5673354.2170,3704807.4380,1500.2010,199,1,1,0,0,5,10,0,526,53965583.74837630,959.4648
5673324.9340,3704832.3610,1474.1840,191,1,1,0,0,5,10,0,526,53965583.74838030,985.7544
5673353.9060,3704807.0940,1500.1360,158,1,1,0,0,5,10,0,526,53965583.74838030,959.5201
5673324.5870,3704832.0810,1471.8220,211,1,1,0,0,5,10,0,526,53965583.74838440,988.1087
5673353.7250,3704806.7890,1494.4600,221,1,1,0,0,5,10,0,526,53965583.74838440,965.1884
5673324.2800,3704831.6710,1472.5770,218,1,1,0,0,5,9,0,526,53965583.74838840,987.3434
5673353.4150,3704806.4120,1494.5910,190,1,1,0,0,5,9,0,526,53965583.74838840,965.0480
5673323.9690,3704831.3270,1471.7240,233,1,1,0,0,5,9,0,526,53965583.74839230,988.1876
5673353.0400,3704806.0320,1498.2330,123,1,1,0,0,5,9,0,526,53965583.74839230,961.3964
5673323.6590,3704830.9500,1472.2490,176,1,1,0,0,5,9,0,526,53965583.74839640,987.6537
5673352.6980,3704805.6530,1499.3480,177,1,1,0,0,5,9,0,526,53965583.74839640,960.2721
5673323.3160,3704830.6040,1470.8050,211,1,1,0,0,5,9,0,526,53965583.74840040,989.0894
5673352.3870,3704805.3090,1499.9060,136,1,1,0,0,5,9,0,526,53965583.74840040,959.7058
5673323.0050,3704830.2600,1470.5750,208,1,1,0,0,5,9,0,526,53965583.74840440,989.3116
5673352.0780,3704804.9320,1500.2010,174,1,1,0,0,5,9,0,526,53965583.74840440,959.4025
5673351.7690,3704804.5550,1500.3330,236,1,1,0,0,5,9,0,526,53965583.74840840,959.2624
5673351.4580,3704804.2110,1500.3650,212,1,1,0,0,5,9,0,526,53965583.74841250,959.2226
5673351.1470,3704803.8660,1499.6440,237,1,1,0,0,5,9,0,526,53965583.74841650,959.9358
5673350.8370,3704803.4890,1499.9060,221,1,1,0,0,5,9,0,526,53965583.74842050,959.6665
5673350.5260,3704803.1450,1499.3810,176,1,1,0,0,5,9,0,526,53965583.74842450,960.1843
5673350.2170,3704802.7680,1499.6760,167,1,1,0,0,5,9,0,526,53965583.74842860,959.8824
5673349.9390,3704802.4250,1498.6920,177,1,1,0,0,5,9,0,526,53965583.74843260,960.8602
5673349.6950,3704802.0520,1493.7050,192,1,1,0,0,5,9,0,526,53965583.74843660,965.8411
5673349.5790,3704801.7500,1481.4350,182,1,1,0,0,5,9,0,526,53965583.74844060,978.1065
5673349.2690,3704801.3730,1481.9930,186,1,1,0,0,5,9,0,526,53965583.74844470,977.5426
5673348.9270,3704800.9950,1483.4030,184,1,1,0,0,5,9,0,526,53965583.74844860,976.1265
5673348.3890,3704800.6060,1497.1170,33,1,2,0,0,5,9,0,526,53965583.74845270,962.4051
5673348.6180,3704800.6180,1483.3380,161,2,2,0,0,5,9,0,526,53965583.74845270,976.1860
5673348.0790,3704800.2290,1497.1170,128,1,2,0,0,5,9,0,526,53965583.74845670,962.3999
5673348.3070,3704800.2730,1481.8610,48,2,2,0,0,5,9,0,526,53965583.74845670,977.6576
5673347.7680,3704799.8850,1497.7410,225,1,1,0,0,5,9,0,526,53965583.74846080,961.7709
5673347.4590,3704799.5080,1497.6090,180,1,1,0,0,5,9,0,526,53965583.74846480,961.8982
5673347.1480,3704799.1630,1498.3640,55,1,1,0,0,5,9,0,526,53965583.74846880,961.1387
5673346.8390,3704798.7860,1498.3310,106,1,2,0,0,5,9,0,526,53965583.74847280,961.1674
5673347.0350,3704798.7960,1483.7640,34,2,2,0,0,5,9,0,526,53965583.74847280,975.7357
5673346.6280,3704798.4140,1490.9170,190,1,1,0,0,5,9,0,526,53965583.74847670,968.5780
5673346.3170,3704798.0700,1490.4900,168,1,1,0,0,5,9,0,526,53965583.74848080,969.0011
5673346.0070,3704797.6930,1490.0310,203,1,1,0,0,5,9,0,526,53965583.74848480,969.4565
5673345.7310,3704797.3180,1488.6860,215,1,1,0,0,5,9,0,526,53965583.74848890,970.7985
5673345.4870,3704796.9440,1482.9110,184,1,1,0,0,5,9,0,526,53965583.74849300,976.5707
5673345.0780,3704796.5950,1488.5870,189,1,1,0,0,5,9,0,526,53965583.74849690,970.8910
5673344.8340,3704796.2210,1484.2560,38,1,2,0,0,5,9,0,526,53965583.74850090,975.2199
5673345.5990,3704796.0300,1419.8540,123,2,2,0,0,8,9,0,526,53965583.74850090,1039.6266
5673344.4570,3704795.8740,1490.5560,124,1,2,0,0,5,9,0,526,53965583.74850500,968.9171
5673345.2580,3704795.6190,1419.7550,52,2,2,0,0,8,9,0,526,53965583.74850500,1039.7230
5673344.1150,3704795.4950,1490.8840,122,1,2,0,0,5,9,0,526,53965583.74850890,968.5866
5673344.9160,3704795.2400,1420.2150,35,2,2,0,0,3,9,0,526,53965583.74850890,1039.2605
5673343.8370,3704795.1520,1490.3260,189,1,1,0,0,5,9,0,526,53965583.74851300,969.1429
5673343.5280,3704794.7750,1489.8340,65,1,2,0,0,5,9,0,526,53965583.74851700,969.6333
5673344.2670,3704794.4520,1419.0010,90,2,2,0,0,8,9,0,526,53965583.74851700,1040.4708
5673343.2510,3704794.4000,1485.6340,115,1,2,0,0,5,9,0,526,53965583.74852100,973.8319
5673343.9260,3704794.0400,1418.7710,46,2,2,0,0,8,9,0,526,53965583.74852100,1040.6992
5673342.9090,3704794.0210,1485.8970,166,1,2,0,0,5,9,0,526,53965583.74852500,973.5674
5673343.5840,3704793.6610,1418.4430,15,2,2,0,0,8,9,0,526,53965583.74852500,1041.0257
5673342.6000,3704793.6440,1485.8640,202,1,1,0,0,5,9,0,526,53965583.74852910,973.5995
5673342.2890,3704793.3000,1486.4870,49,1,2,0,0,5,8,0,526,53965583.74853310,972.9757
5673342.4250,3704793.2080,1470.2800,76,2,2,0,0,5,8,0,526,53965583.74853310,989.1835
5673341.9790,3704792.9230,1486.4870,99,1,2,0,0,5,8,0,526,53965583.74853720,972.9753
5673342.1150,3704792.8310,1470.6080,81,2,2,0,0,5,8,0,526,53965583.74853720,988.8551
5673341.6350,3704792.5770,1488.2590,132,1,2,0,0,5,8,0,526,53965583.74854110,971.2027
5673342.1160,3704792.1750,1430.9100,9,2,2,0,0,5,8,0,526,53965583.74854110,1028.5551
5673341.4620,3704792.1090,1472.3470,119,1,2,0,0,5,8,0,526,53965583.74854520,987.1156
5673341.7050,3704791.8580,1441.2450,40,2,2,0,0,5,8,0,526,53965583.74854520,1018.2195
5673341.1530,3704791.7320,1470.9690,116,1,2,0,0,5,8,0,526,53965583.74854910,988.4938
5673341.6020,3704791.2940,1417.4260,10,2,2,0,0,8,8,0,526,53965583.74854910,1042.0404
5673340.7400,3704791.4480,1485.9950,159,1,1,0,0,5,8,0,526,53965583.74855320,973.4678
5673340.3960,3704791.1020,1486.2250,54,1,2,0,0,5,8,0,526,53965583.74855720,973.2380
5673340.5340,3704790.9770,1470.2800,62,2,2,0,0,5,8,0,526,53965583.74855720,989.1841
5673340.1200,3704790.7270,1484.6830,198,1,1,0,0,5,8,0,526,53965583.74856130,974.7812
5673339.7760,3704790.3810,1486.7170,170,1,1,0,0,5,8,0,526,53965583.74856530,972.7480
5673339.4670,3704790.0040,1487.2420,214,1,1,0,0,5,8,0,526,53965583.74856930,972.2246
5673339.1570,3704789.6270,1487.1760,188,1,1,0,0,5,8,0,526,53965583.74857330,972.2923
5673338.8480,3704789.2500,1484.3220,23,1,2,0,0,5,8,0,526,53965583.74857740,975.1481
5673338.9200,3704789.1220,1470.5430,94,2,2,0,0,5,8,0,526,53965583.74857740,988.9279
5673338.5390,3704788.8730,1485.2740,157,1,1,0,0,5,8,0,526,53965583.74858130,974.1985
5673338.2280,3704788.5280,1485.5030,126,1,2,0,0,5,8,0,526,53965583.74858530,973.9716
5673338.3050,3704788.3020,1463.7510,24,2,2,0,0,5,8,0,526,53965583.74858530,995.7248
5673337.9180,3704788.1510,1484.0600,152,1,1,0,0,5,8,0,526,53965583.74858940,975.4172
5673337.6110,3704787.7420,1481.7630,205,1,1,0,0,5,8,0,526,53965583.74859340,977.7173
5673337.3010,3704787.3650,1481.7300,110,1,2,0,0,5,8,0,526,53965583.74859740,977.7535
5673337.3420,3704787.2020,1467.9180,35,2,2,0,0,5,8,0,526,53965583.74859740,991.5665
5673336.9970,3704786.8890,1471.0350,126,1,1,0,0,5,8,0,526,53965583.74860140,988.4523
5673336.6420,3704786.7730,1493.2130,18,1,2,0,0,5,8,0,526,53965583.74860550,966.2765
5673336.6480,3704786.6420,1481.2380,23,2,2,0,0,5,8,0,526,53965583.74860550,978.2521
5673336.2980,3704786.4270,1492.9510,168,1,1,0,0,5,8,0,526,53965583.74860950,966.5418
5673335.9890,3704786.0500,1493.0160,215,1,1,0,0,5,8,0,526,53965583.74861350,966.4810
5673335.6790,3704785.6730,1492.4910,165,1,1,0,0,5,8,0,526,53965583.74861750,967.0104
5673335.3680,3704785.3290,1492.4910,238,1,1,0,0,5,8,0,526,53965583.74862160,967.0146
5673335.0590,3704784.9520,1492.8190,172,1,1,0,0,5,8,0,526,53965583.74862550,966.6915
5673334.7480,3704784.6070,1493.8040,217,1,1,0,0,5,8,0,526,53965583.74862960,965.7113
5673334.4390,3704784.2300,1493.6720,163,1,1,0,0,5,8,0,526,53965583.74863360,965.8487
5673334.1290,3704783.8530,1492.3930,193,1,1,0,0,5,8,0,526,53965583.74863770,967.1331
5673335.3980,3704782.1440,1489.6040,66,1,1,1,0,5,8,0,526,53965583.75747860,969.9092
5673335.7090,3704782.4880,1489.1780,167,1,1,1,0,5,8,0,526,53965583.75748260,970.3298
5673336.0190,3704782.8650,1489.2110,227,1,1,1,0,5,8,0,526,53965583.75748660,970.2910
5673336.3300,3704783.2090,1487.6360,199,1,1,1,0,5,8,0,526,53965583.75749060,971.8609
5673336.6410,3704783.5540,1487.3400,62,1,1,1,0,5,8,0,526,53965583.75749470,972.1521
5673336.9500,3704783.9310,1486.9800,183,1,1,1,0,5,8,0,526,53965583.75749870,972.5071
5673337.3070,3704784.0150,1467.1630,65,1,2,1,0,5,8,0,526,53965583.75750270,992.3216
5673337.3480,3704783.8520,1455.8770,25,2,2,1,0,5,8,0,526,53965583.75750270,1003.6088
5673337.6490,3704784.3930,1466.8680,193,1,1,1,0,5,8,0,526,53965583.75750670,992.6121
5673337.9620,3704784.7050,1463.2920,160,1,1,1,0,5,8,0,526,53965583.75751080,996.1844
5673338.3020,3704785.1160,1464.0140,126,1,1,1,0,5,8,0,526,53965583.75751480,995.4581
5673338.6130,3704785.4600,1462.1760,184,1,1,1,0,5,8,0,526,53965583.75751880,997.2926
5673339.0010,3704785.5790,1443.9020,152,1,1,1,0,5,8,0,526,53965583.75752280,1015.5650
5673339.1530,3704786.4730,1486.5200,14,1,2,1,0,5,8,0,526,53965583.75752690,972.9404
5673339.4550,3704785.7000,1421.1000,84,2,2,1,0,4,8,0,526,53965583.75752690,1038.3656
5673339.4630,3704786.8500,1486.5200,204,1,1,1,0,5,8,0,526,53965583.75753080,972.9373
5673339.7720,3704787.2270,1488.2590,192,1,1,1,0,5,8,0,526,53965583.75753490,971.1957
5673340.1140,3704787.6060,1488.4560,216,1,1,1,0,5,8,0,526,53965583.75753890,970.9963
5673340.4230,3704787.9830,1488.6530,161,1,1,1,0,5,8,0,526,53965583.75754300,970.7970
5673340.7360,3704788.2940,1484.9780,161,1,1,1,0,5,8,0,526,53965583.75754700,974.4703
5673341.0780,3704788.6730,1484.8800,197,1,1,1,0,5,8,0,526,53965583.75755100,974.5667
5673341.3870,3704789.0500,1485.8970,161,1,1,1,0,5,8,0,526,53965583.75755500,973.5482
5673341.6660,3704789.3930,1486.5530,178,1,1,1,0,5,8,0,526,53965583.75755890,972.8910
5673342.0080,3704789.7710,1487.7670,206,1,1,1,0,5,8,0,526,53965583.75756300,971.6762
5673342.3170,3704790.1480,1487.9310,213,1,1,1,0,5,8,0,526,53965583.75756700,971.5113
5673342.6260,3704790.5250,1488.0950,166,1,1,1,0,5,8,0,526,53965583.75757110,971.3467
5673342.9370,3704790.8700,1487.8980,215,1,1,1,0,5,8,0,526,53965583.75757520,971.5436
5673343.2810,3704791.2150,1485.2740,180,1,1,1,0,5,8,0,526,53965583.75757910,974.1678
5673343.5910,3704791.5920,1485.0440,194,1,1,1,0,5,8,0,526,53965583.75758310,974.3979
5673343.9000,3704791.9690,1485.5030,115,1,2,1,0,5,8,0,526,53965583.75758720,973.9392
5673344.5130,3704791.5410,1418.9350,19,2,2,1,0,8,8,0,526,53965583.75758720,1040.5114
5673344.1760,3704792.3450,1491.0810,79,1,2,1,0,5,9,0,526,53965583.75759110,968.3619
5673344.6190,3704792.0390,1440.7850,69,2,2,1,0,5,9,0,526,53965583.75759110,1018.6607
5673344.9610,3704792.4170,1440.7850,133,1,2,1,0,5,9,0,526,53965583.75759520,1018.6618
5673345.1950,3704792.3310,1419.3290,19,2,2,1,0,8,9,0,526,53965583.75759520,1040.1192
5673345.3030,3704792.7960,1440.5890,29,1,2,1,0,5,9,0,526,53965583.75759920,1018.8592
5673345.5370,3704792.7090,1419.5260,31,2,2,1,0,8,9,0,526,53965583.75759920,1039.9236
5673345.8450,3704793.1190,1419.9850,138,1,1,1,0,8,9,0,526,53965583.75760330,1039.4658
5673346.1870,3704793.4980,1420.3130,177,1,1,1,0,8,9,0,526,53965583.75760720,1039.1397
5673346.5290,3704793.8770,1420.1160,188,1,1,1,0,8,9,0,526,53965583.75761130,1039.3389
5673346.0690,3704794.5430,1489.3420,91,1,2,1,0,5,9,0,526,53965583.75761530,970.1101
5673346.8700,3704794.2880,1420.2470,30,2,2,1,0,8,9,0,526,53965583.75761530,1039.2101
5673346.2800,3704794.9150,1497.0520,77,1,1,1,0,5,9,0,526,53965583.75761940,962.4018
5673346.5890,3704795.2920,1496.9860,187,1,1,1,0,5,9,0,526,53965583.75762330,962.4703
5673346.9000,3704795.6360,1499.5120,185,1,1,1,0,5,9,0,526,53965583.75762740,959.9474
5673347.2090,3704796.0130,1498.8890,160,1,1,1,0,5,9,0,526,53965583.75763130,960.5733
5673347.4870,3704796.3560,1500.6610,150,1,1,1,0,5,9,0,526,53965583.75763540,958.8044
5673347.7970,3704796.7330,1500.7920,209,1,1,1,0,5,9,0,526,53965583.75763940,958.6769
5673348.1080,3704797.0770,1500.3980,212,1,1,1,0,5,9,0,526,53965583.75764350,959.0747
5673348.4170,3704797.4540,1500.2010,138,1,2,1,0,5,9,0,526,53965583.75764750,959.2756
5673348.6810,3704797.4350,1481.0740,15,2,2,1,0,5,9,0,526,53965583.75764750,978.4044
5673348.7940,3704797.8020,1497.5440,142,1,1,1,0,5,9,0,526,53965583.75765140,961.9375
5673349.1030,3704798.1790,1497.2810,117,1,1,1,0,5,9,0,526,53965583.75765550,962.2049
5673349.4140,3704798.5230,1496.6910,226,1,1,1,0,5,9,0,526,53965583.75765960,962.7996
5673349.7230,3704798.9000,1496.7240,166,1,2,1,0,5,9,0,526,53965583.75766350,962.7715
5673349.9200,3704798.9100,1483.2720,34,2,2,1,0,5,9,0,526,53965583.75766350,976.2249
5673350.2290,3704799.2870,1483.1740,164,1,1,1,0,5,9,0,526,53965583.75766750,976.3281
5673350.5730,3704799.6330,1482.3860,118,1,1,1,0,5,9,0,526,53965583.75767160,977.1219
5673350.9810,3704800.0150,1476.4150,116,1,1,1,0,5,9,0,526,53965583.75767560,983.0994
5673351.3230,3704800.3930,1475.4310,179,1,1,1,0,5,9,0,526,53965583.75767960,984.0897
5673322.0030,3704826.0370,1465.4240,193,1,1,1,0,5,9,0,526,53965583.75768360,994.3778
5673351.5680,3704800.7340,1480.0240,168,1,1,1,0,5,9,0,526,53965583.75768360,979.5023
5673322.3470,3704826.3830,1466.4090,188,1,1,1,0,5,9,0,526,53965583.75768770,993.3987
5673351.8780,3704801.1110,1479.9910,187,1,1,1,0,5,9,0,526,53965583.75768770,979.5417
5673322.6570,3704826.7600,1466.3760,169,1,1,1,0,5,9,0,526,53965583.75769170,993.4386
5673352.1870,3704801.4880,1480.8440,177,1,1,1,0,5,9,0,526,53965583.75769170,978.6955
5673322.9990,3704827.1390,1466.8680,177,1,1,1,0,5,9,0,526,53965583.75769570,992.9537
5673352.4980,3704801.8330,1480.9760,180,1,1,1,0,5,9,0,526,53965583.75769570,978.5703
5673323.3470,3704827.3860,1470.5100,147,1,1,1,0,5,9,0,526,53965583.75769970,989.3167
5673352.5160,3704802.1290,1497.7740,159,1,1,1,0,5,9,0,526,53965583.75769970,961.7767
5673323.6910,3704827.7320,1471.1000,187,1,1,1,0,5,9,0,526,53965583.75770380,988.7334
5673352.7920,3704802.5050,1498.9220,100,1,1,1,0,5,9,0,526,53965583.75770380,960.6356
5673324.0010,3704828.1090,1471.6250,185,1,1,1,0,5,9,0,526,53965583.75770770,988.2166
5673353.1030,3704802.8490,1498.6920,168,1,1,1,0,5,9,0,526,53965583.75770770,960.8730
5673324.3460,3704828.4220,1473.1340,169,1,1,1,0,5,9,0,526,53965583.75771180,986.7142
5673353.4130,3704803.2260,1498.5610,71,1,1,1,0,5,9,0,526,53965583.75771180,961.0118
5673324.6550,3704828.7990,1472.9700,178,1,1,1,0,5,9,0,526,53965583.75771580,986.8866
5673353.8530,3704803.6090,1493.1150,192,1,1,1,0,5,9,0,526,53965583.75771580,966.4674
5673324.9650,3704829.1760,1472.2160,215,1,1,1,0,5,9,0,526,53965583.75771990,987.6488
5673354.1640,3704803.9540,1493.1480,135,1,1,1,0,5,9,0,526,53965583.75771990,966.4426
5673325.2710,3704829.6190,1470.7390,193,1,1,1,0,5,9,0,526,53965583.75772380,989.1360
5673354.4410,3704804.3290,1494.6240,193,1,1,1,0,5,9,0,526,53965583.75772380,964.9748
5673325.6160,3704829.9320,1472.5110,101,1,1,1,0,5,9,0,526,53965583.75772790,987.3717
5673354.7520,3704804.6730,1494.6570,178,1,1,1,0,5,9,0,526,53965583.75772790,964.9504
5673325.9240,3704830.3420,1471.2970,67,1,1,1,0,5,10,0,526,53965583.75773190,988.5955
5673354.9330,3704804.9780,1500.8250,177,1,1,1,0,5,10,0,526,53965583.75773190,958.7898
5673326.2350,3704830.6860,1471.7560,117,1,1,1,0,5,10,0,526,53965583.75773580,988.1453
5673355.2100,3704805.3530,1501.6120,210,1,1,1,0,5,10,0,526,53965583.75773580,958.0115
5673326.5440,3704831.0630,1471.8220,221,1,1,1,0,5,10,0,526,53965583.75773990,988.0892
5673355.5210,3704805.6980,1501.5140,119,1,2,1,0,5,10,0,526,53965583.75773990,958.1188
5673357.1650,3704806.3070,1426.3830,34,2,2,1,0,8,10,0,526,53965583.75773990,1033.2702
5673326.8880,3704831.4090,1472.5440,180,1,1,1,0,5,10,0,526,53965583.75774400,987.3764
5673355.8320,3704806.0420,1502.6620,129,1,1,1,0,5,10,0,526,53965583.75774400,956.9807
5673327.1990,3704831.7530,1473.1670,182,1,1,1,0,5,10,0,526,53965583.75774800,986.7630
5673356.1080,3704806.4170,1503.1540,184,1,1,1,0,5,10,0,526,53965583.75774800,956.4980
5673327.5070,3704832.1630,1471.6910,218,1,1,1,0,5,10,0,526,53965583.75775190,988.2498
5673356.4520,3704806.7630,1502.4320,160,1,1,1,0,5,10,0,526,53965583.75775190,957.2306
5673327.8140,3704832.5730,1470.5100,117,1,1,1,0,5,10,0,526,53965583.75775600,989.4420
5673356.7300,3704807.1060,1503.4820,176,1,1,1,0,5,10,0,526,53965583.75775600,956.1903
5673328.1580,3704832.9190,1470.9360,177,1,1,1,0,5,10,0,526,53965583.75776000,989.0260
5673357.0400,3704807.4830,1503.6130,159,1,1,1,0,5,10,0,526,53965583.75776000,956.0701
5673328.4660,3704833.3290,1470.2470,193,1,1,1,0,5,10,0,526,53965583.75776410,989.7271
5673357.3510,3704807.8270,1502.6620,185,1,1,1,0,5,10,0,526,53965583.75776410,957.0315
5673328.7770,3704833.6730,1471.1660,191,1,1,1,0,5,10,0,526,53965583.75776800,988.8190
5673357.6930,3704808.2060,1502.2030,110,1,1,1,0,5,10,0,526,53965583.75776800,957.5023
5673329.0860,3704834.0500,1470.7070,196,1,1,1,0,5,10,0,526,53965583.75777210,989.2895
5673357.9710,3704808.5480,1502.6290,105,1,1,1,0,5,10,0,526,53965583.75777210,957.0867
5673329.3940,3704834.4600,1469.6900,72,1,2,1,0,5,10,0,526,53965583.75777610,990.3190
5673329.1280,3704836.4500,1414.9650,71,2,2,1,0,8,10,0,526,53965583.75777610,1045.0808
5673358.4100,3704808.9650,1497.5770,108,1,1,1,0,5,10,0,526,53965583.75777610,962.1522
5673329.7830,3704834.5450,1477.2680,196,1,1,1,0,5,10,0,526,53965583.75778010,982.7474
5673358.7830,3704809.3780,1494.9190,164,1,1,1,0,5,10,0,526,53965583.75778010,964.8231
5673330.0940,3704834.8890,1477.7600,163,1,1,1,0,5,10,0,526,53965583.75778410,982.2670
5673359.1270,3704809.7240,1493.9020,140,1,1,1,0,5,10,0,526,53965583.75778410,965.8524
5673330.4050,3704835.2340,1478.4490,148,1,1,1,0,5,10,0,526,53965583.75778820,981.5900
5673359.4360,3704810.1010,1494.2300,165,1,1,1,0,5,10,0,526,53965583.75778820,965.5369
5673330.7160,3704835.5780,1478.6130,199,1,1,1,0,5,10,0,526,53965583.75779220,981.4378
5673359.7140,3704810.4430,1494.5580,185,1,1,1,0,5,10,0,526,53965583.75779220,965.2204
5673331.0260,3704835.9550,1478.7120,140,1,1,1,0,5,10,0,526,53965583.75779620,981.3521
5673360.0560,3704810.8220,1494.3290,144,1,1,1,0,5,10,0,526,53965583.75779620,965.4631
5673331.3730,3704836.2350,1480.8440,133,1,1,1,0,5,10,0,526,53965583.75780020,979.2313
5673360.3670,3704811.1660,1494.1970,92,1,1,1,0,5,10,0,526,53965583.75780020,965.6078
5673331.6840,3704836.5790,1481.3370,181,1,1,1,0,5,10,0,526,53965583.75780430,978.7511
5673360.7100,3704811.5450,1493.2460,167,1,1,1,0,5,10,0,526,53965583.75780430,966.5727
5673331.9900,3704837.0220,1479.8930,139,1,1,1,0,5,10,0,526,53965583.75780820,980.2105
5673361.0190,3704811.9220,1492.9180,70,1,1,1,0,5,10,0,526,53965583.75780820,966.9141
5673332.2990,3704837.3990,1478.9420,122,1,1,1,0,5,10,0,526,53965583.75781230,981.1749
5673361.2970,3704812.2640,1493.7380,144,1,1,1,0,5,10,0,526,53965583.75781230,966.1069
5673332.6100,3704837.7430,1479.7950,168,1,1,1,0,5,10,0,526,53965583.75781630,980.3357
5673361.6390,3704812.6430,1493.3770,65,1,1,1,0,5,10,0,526,53965583.75781630,966.4828
5673332.9520,3704838.1220,1479.6630,168,1,1,1,0,5,10,0,526,53965583.75782040,980.4823
5673362.1420,3704813.0960,1485.8970,141,1,1,1,0,5,10,0,526,53965583.75782040,973.9799
5673333.2700,3704838.9920,1467.1960,176,1,1,1,0,5,10,0,526,53965583.75782440,992.9739
5673362.4510,3704813.4730,1486.4880,134,1,2,1,0,5,10,0,526,53965583.75782440,973.4037
5673362.8670,3704813.6910,1471.3300,35,2,2,1,0,5,10,0,526,53965583.75782440,988.5690
5673333.5770,3704839.4020,1466.7700,153,1,1,1,0,5,10,0,526,53965583.75782840,993.4160
5673362.6650,3704813.7790,1489.9650,113,1,1,1,0,5,10,0,526,53965583.75782840,969.9396
5673333.8760,3704840.6320,1445.2470,42,1,2,1,0,5,10,0,526,53965583.75783240,1014.9713
5673333.8180,3704841.7790,1418.1810,60,2,2,1,0,3,10,0,526,53965583.75783240,1042.0615
5673362.9760,3704814.1230,1489.8340,165,1,1,1,0,5,10,0,526,53965583.75783240,970.0851
5673334.2320,3704840.0920,1467.7870,140,1,2,1,0,5,10,0,526,53965583.75783650,992.4283
5673334.1570,3704842.2230,1417.3600,3,2,2,1,0,8,10,0,526,53965583.75783650,1042.9002
5673363.2860,3704814.5000,1490.1620,98,1,3,1,0,5,10,0,526,53965583.75783650,969.7725
5673363.8290,3704814.7910,1470.9040,4,2,3,1,0,5,10,0,526,53965583.75783650,989.0403
5673365.0100,3704815.4750,1430.9430,5,3,3,1,0,8,10,0,526,53965583.75783650,1029.0246
5673334.5430,3704840.4360,1468.3120,180,1,1,1,0,5,10,0,526,53965583.75784040,991.9182
5673363.3090,3704814.6990,1499.3810,112,1,1,1,0,5,10,0,526,53965583.75784040,960.5629
5673334.8270,3704840.0240,1486.2580,29,1,2,1,0,5,10,0,526,53965583.75784440,973.9710
5673334.8540,3704840.7800,1468.5740,96,2,2,1,0,5,10,0,526,53965583.75784440,991.6711
5673363.6200,3704815.0430,1499.0530,163,1,1,1,0,5,10,0,526,53965583.75784440,960.9060
5673335.1630,3704841.1570,1468.6400,171,1,1,1,0,5,10,0,526,53965583.75784850,991.6215
5673363.8980,3704815.3850,1500.1360,150,1,1,1,0,5,10,0,526,53965583.75784850,959.8381
5673335.4470,3704840.7450,1486.2910,36,1,2,1,0,5,10,0,526,53965583.75785260,973.9695
5673335.5050,3704841.5360,1468.2460,104,2,2,1,0,5,10,0,526,53965583.75785260,992.0319
5673364.2070,3704815.7620,1500.3000,177,1,1,1,0,5,10,0,526,53965583.75785260,959.6904
5673335.8060,3704842.0770,1464.4730,101,1,2,1,0,5,10,0,526,53965583.75785650,995.8252
5673335.8320,3704842.8670,1446.1990,13,2,2,1,0,5,10,0,526,53965583.75785650,1014.1163
5673364.5510,3704816.1080,1499.3160,170,1,1,1,0,5,10,0,526,53965583.75785650,960.6908
5673336.1020,3704841.4350,1487.2420,41,1,2,1,0,5,10,0,526,53965583.75786050,973.0505
5673336.1360,3704842.0610,1473.2660,54,2,2,1,0,5,10,0,526,53965583.75786050,987.0406
5673364.8600,3704816.4850,1499.5780,201,1,1,1,0,5,10,0,526,53965583.75786050,960.4456
5673336.4110,3704841.8120,1487.1760,146,1,2,1,0,5,10,0,526,53965583.75786460,973.1337
5673336.4430,3704842.4710,1472.7410,13,2,2,1,0,5,10,0,526,53965583.75786460,987.5838
5673365.1700,3704816.8620,1498.9550,125,1,2,1,0,5,10,0,526,53965583.75786460,961.0852
5673367.3050,3704818.1530,1431.9600,15,2,2,1,0,8,10,0,526,53965583.75786460,1028.1266
5673336.7220,3704842.1560,1487.0450,125,1,2,1,0,5,10,0,526,53965583.75786860,973.2807
5673336.7540,3704842.8150,1473.1020,25,2,2,1,0,5,10,0,526,53965583.75786860,987.2392
5673365.5130,3704817.2080,1498.7580,29,1,2,1,0,5,10,0,526,53965583.75786860,961.2997
5673367.6140,3704818.5300,1432.3210,66,2,2,1,0,8,10,0,526,53965583.75786860,1027.7830
5673337.0280,3704842.5990,1485.7980,163,1,1,1,0,5,11,0,526,53965583.75787260,974.5471
5673365.9830,3704817.6590,1493.6070,145,1,1,1,0,5,11,0,526,53965583.75787260,966.4711
5673337.3420,3704842.8770,1487.7340,133,1,1,1,0,5,11,0,526,53965583.75787660,972.6267
5673366.2600,3704818.0350,1494.1650,186,1,1,1,0,5,11,0,526,53965583.75787660,965.9301
5673337.6520,3704843.2540,1486.9800,78,1,1,1,0,5,11,0,526,53965583.75788070,973.3981
5673366.5710,3704818.3790,1494.0660,168,1,1,1,0,5,11,0,526,53965583.75788070,966.0463
5673337.9640,3704843.5660,1488.3580,95,1,1,1,0,5,11,0,526,53965583.75788460,972.0371
5673366.8800,3704818.7560,1494.0990,53,1,2,1,0,5,11,0,526,53965583.75788460,966.0315
5673368.6630,3704819.8640,1441.0150,63,2,2,1,0,4,11,0,526,53965583.75788460,1019.1570
5673338.2750,3704843.9100,1488.3580,69,1,2,1,0,5,11,0,526,53965583.75788870,972.0543
5673338.3470,3704844.4390,1477.2030,6,2,2,1,0,5,11,0,526,53965583.75788870,983.2221
5673367.1910,3704819.1000,1493.9350,142,1,1,1,0,5,11,0,526,53965583.75788870,966.2131
5673338.5830,3704844.3200,1487.8000,147,1,1,1,0,5,11,0,526,53965583.75789270,972.6322
5673367.5020,3704819.4440,1494.0990,197,1,1,1,0,5,11,0,526,53965583.75789270,966.0672
5673338.8940,3704844.6640,1487.7670,49,1,2,1,0,5,11,0,526,53965583.75789680,972.6828
5673338.9610,3704845.2920,1475.1690,79,2,2,1,0,5,11,0,526,53965583.75789680,985.2966
5673367.8110,3704819.8210,1494.1320,123,1,1,1,0,5,11,0,526,53965583.75789680,966.0531
5673339.2720,3704845.6360,1475.4970,188,1,1,1,0,5,11,0,526,53965583.75790070,984.9869
5673368.2170,3704820.2360,1491.3760,184,1,1,1,0,5,11,0,526,53965583.75790070,968.8301
5673339.6160,3704845.9820,1475.5290,102,1,1,1,0,5,11,0,526,53965583.75790480,984.9733
5673368.5600,3704820.6150,1490.8510,165,1,1,1,0,5,11,0,526,53965583.75790480,969.3752
5673339.9250,3704846.3590,1475.3000,174,1,1,1,0,5,11,0,526,53965583.75790880,985.2220
5673370.4260,3704822.0230,1446.4610,41,2,3,1,0,4,11,0,526,53965583.75790880,1013.8240
5673368.8690,3704820.9920,1490.7200,64,1,3,1,0,5,11,0,526,53965583.75790880,969.5256
5673340.2750,3704847.2310,1465.3920,151,1,1,1,0,5,11,0,526,53965583.75791280,995.1625
5673370.0380,3704821.9050,1466.0480,23,1,2,1,0,5,11,0,526,53965583.75791280,994.2382
5673371.1480,3704822.6840,1434.8800,89,2,2,1,0,8,11,0,526,53965583.75791280,1025.4356
5673340.5860,3704847.5750,1465.8510,162,1,1,1,0,5,11,0,526,53965583.75791680,994.7229
5673369.5840,3704821.7830,1487.7670,144,1,1,1,0,5,11,0,526,53965583.75791680,972.5201
5673340.9280,3704847.9540,1465.9820,145,1,1,1,0,5,11,0,526,53965583.75792090,994.6130
5673369.8950,3704822.1280,1488.0300,176,1,1,1,0,5,11,0,526,53965583.75792090,972.2770
5673341.2810,3704848.7600,1456.5330,108,2,2,1,0,5,11,0,526,53965583.75792490,1004.0926
5673341.1710,3704847.7030,1478.2200,24,1,2,1,0,5,11,0,526,53965583.75792490,982.3797
5673370.2680,3704822.5410,1485.8640,189,1,1,1,0,5,11,0,526,53965583.75792490,974.4646
5673341.4800,3704848.0800,1477.6290,138,1,1,1,0,5,11,0,526,53965583.75792880,982.9910
5673370.6100,3704822.9190,1485.2740,143,1,1,1,0,5,11,0,526,53965583.75792880,975.0760
5673341.7400,3704848.1260,1483.9280,98,1,1,1,0,5,11,0,526,53965583.75793290,976.7045
5673371.0480,3704823.3690,1482.1570,140,1,2,1,0,5,11,0,526,53965583.75793290,978.2175
5673372.7290,3704824.5380,1436.5530,10,2,2,1,0,8,11,0,526,53965583.75793290,1023.8674
5673342.0500,3704848.5030,1483.5680,125,1,1,1,0,5,11,0,526,53965583.75793700,977.0856
5673371.2310,3704823.6410,1485.5360,181,1,1,1,0,5,11,0,526,53965583.75793700,974.8559
5673342.3590,3704848.8800,1483.2070,123,1,1,1,0,5,11,0,526,53965583.75794100,977.4680
5673371.4780,3704823.9490,1487.5700,210,1,1,1,0,5,11,0,526,53965583.75794100,972.8414
5673342.6680,3704849.2570,1482.9440,155,1,1,1,0,5,11,0,526,53965583.75794490,977.7527
5673371.7560,3704824.2910,1488.1610,174,1,1,1,0,5,11,0,526,53965583.75794490,972.2706
5673342.9780,3704849.6340,1482.8790,43,1,2,1,0,5,11,0,526,53965583.75794900,977.8399
5673343.2320,3704851.0920,1454.7950,37,2,2,1,0,5,11,0,526,53965583.75794900,1005.9629
5673372.0670,3704824.6360,1488.3900,205,1,1,1,0,5,11,0,526,53965583.75794900,972.0630
5673343.3200,3704850.0130,1482.5500,95,1,1,1,0,5,11,0,526,53965583.75795300,978.1914
5673372.4090,3704825.0140,1487.7340,181,1,1,1,0,5,11,0,526,53965583.75795300,972.7418
5673343.5980,3704850.3550,1483.2070,85,1,1,1,0,5,11,0,526,53965583.75795700,977.5560
5673372.6880,3704825.3570,1488.6200,173,1,1,1,0,5,11,0,526,53965583.75795700,971.8772
5673343.9420,3704850.7010,1483.3380,64,1,1,1,0,5,11,0,526,53965583.75796100,977.4469
5673372.9660,3704825.7000,1489.2430,115,1,1,1,0,5,11,0,526,53965583.75796100,971.2754
5673344.2510,3704851.0780,1483.2070,96,1,1,1,0,5,11,0,526,53965583.75796510,977.6010
5673373.5290,3704826.2540,1482.8130,198,1,1,1,0,5,11,0,526,53965583.75796510,977.7357
5673344.5640,3704851.3900,1483.9610,122,1,1,1,0,5,11,0,526,53965583.75796910,976.8682
5673373.8400,3704826.5980,1482.9770,181,1,1,1,0,5,11,0,526,53965583.75796910,977.5942
5673344.8440,3704851.7000,1484.9130,108,1,1,1,0,5,11,0,526,53965583.75797310,975.9374
5673374.1180,3704826.9410,1483.4690,194,1,1,1,0,5,11,0,526,53965583.75797310,977.1240
5673345.1860,3704852.0780,1484.6170,118,1,1,1,0,5,11,0,526,53965583.75797710,976.2574
5673375.0610,3704827.7770,1467.8200,94,1,1,1,0,5,11,0,526,53965583.75797710,992.8162
5673345.4380,3704852.2880,1487.1760,139,1,1,1,0,5,11,0,526,53965583.75798120,973.7168
5673376.5430,3704829.0010,1439.5060,70,2,2,1,0,3,11,0,526,53965583.75798120,1021.1909
5673374.3280,3704827.3450,1494.2630,12,1,2,1,0,5,11,0,526,53965583.75798120,966.3642
5673345.7490,3704852.6320,1487.6360,146,1,1,1,0,5,11,0,526,53965583.75798510,973.2802
5673374.5420,3704827.6520,1496.0020,130,1,2,1,0,5,11,0,526,53965583.75798510,964.6456
5673375.3340,3704828.2180,1477.0720,13,2,2,1,0,5,11,0,526,53965583.75798510,983.6006
5673346.0030,3704852.8100,1491.0810,151,1,1,1,0,5,11,0,526,53965583.75798920,969.8537
5673374.8220,3704827.9620,1497.2490,135,1,1,1,0,5,11,0,526,53965583.75798920,963.4213
5673346.3140,3704853.1540,1490.9820,149,1,1,1,0,5,11,0,526,53965583.75799320,969.9756
5673376.5240,3704829.3620,1463.4890,9,2,2,1,0,5,11,0,526,53965583.75799320,997.2501
5673375.1000,3704828.3040,1497.4130,162,1,2,1,0,5,11,0,526,53965583.75799320,963.2797
5673346.5460,3704853.1000,1498.0030,128,1,1,1,0,5,11,0,526,53965583.75799730,962.9663
5673376.0430,3704829.1400,1482.3210,116,2,2,1,0,5,11,0,526,53965583.75799730,978.4168
5673375.4090,3704828.6810,1497.4460,28,1,2,1,0,5,11,0,526,53965583.75799730,963.2716
5673346.8570,3704853.4440,1498.2330,163,1,1,1,0,5,11,0,526,53965583.75800130,962.7602
5673376.3540,3704829.4850,1482.5510,75,1,2,1,0,5,11,0,526,53965583.75800130,978.2113
5673377.1430,3704830.1160,1463.7840,98,2,2,1,0,5,11,0,526,53965583.75800130,997.0054
5673347.1680,3704853.7880,1498.5280,169,1,1,1,0,5,11,0,526,53965583.75800530,962.4895
5673376.6320,3704829.8270,1483.0430,186,1,1,1,0,5,11,0,526,53965583.75800530,977.7428
5673347.4780,3704854.1650,1498.2330,122,1,1,1,0,5,11,0,526,53965583.75800930,962.8098
5673376.3410,3704829.7470,1497.3470,129,1,1,1,0,5,11,0,526,53965583.75800930,963.4445
5673347.7610,3704854.4100,1500.2670,149,1,1,1,0,5,11,0,526,53965583.75801340,960.7976
5673376.6520,3704830.0910,1497.2490,30,1,3,1,0,5,11,0,526,53965583.75801340,963.5671
5673377.2540,3704830.5160,1483.7640,60,2,3,1,0,5,11,0,526,53965583.75801340,977.0722
5673378.2020,3704831.2540,1462.2420,17,3,3,1,0,5,11,0,526,53965583.75801340,998.6277
5673348.0700,3704854.7870,1499.8080,172,1,1,1,0,5,12,0,526,53965583.75801730,961.2821
5673376.9940,3704830.4700,1496.8550,223,1,1,1,0,5,12,0,526,53965583.75801730,963.9880
5673348.7850,3704856.8920,1470.6080,71,2,2,1,0,5,12,0,526,53965583.75802140,990.5625
5673348.3500,3704855.0970,1500.5290,57,1,2,1,0,5,12,0,526,53965583.75802140,960.5846
5673377.2720,3704830.8120,1497.4460,178,1,1,1,0,5,12,0,526,53965583.75802140,963.4216
5673348.6910,3704855.5080,1499.6110,86,1,1,1,0,5,12,0,526,53965583.75802540,961.5302
5673377.5830,3704831.1560,1497.4460,199,1,1,1,0,5,12,0,526,53965583.75802540,963.4471
5673348.9690,3704855.8510,1499.9060,171,1,1,1,0,5,12,0,526,53965583.75802950,961.2603
5673377.8920,3704831.5330,1497.2490,163,1,1,1,0,5,12,0,526,53965583.75802950,963.6705
5673349.2800,3704856.1950,1500.3000,162,1,1,1,0,5,12,0,526,53965583.75803340,960.8925
5673378.2020,3704831.9100,1496.8220,137,1,2,1,0,5,12,0,526,53965583.75803340,964.1238
5673378.8040,3704832.3350,1483.9290,19,2,2,1,0,5,12,0,526,53965583.75803340,977.0378
5673349.5890,3704856.5720,1499.8080,138,1,1,1,0,5,12,0,526,53965583.75803740,961.4110
5673378.5450,3704832.2560,1496.6580,211,1,1,1,0,5,12,0,526,53965583.75803740,964.3152
5673349.8990,3704856.9490,1499.7090,108,1,1,1,0,5,12,0,526,53965583.75804150,961.5376
5673378.8550,3704832.6330,1496.4610,207,1,1,1,0,5,12,0,526,53965583.75804150,964.5393
5673350.2100,3704857.2930,1499.8080,126,1,1,1,0,5,12,0,526,53965583.75804540,961.4649
5673379.1660,3704832.9780,1496.2970,174,1,1,1,0,5,12,0,526,53965583.75804540,964.7297
5673350.5220,3704857.6050,1500.1690,136,1,1,1,0,5,12,0,526,53965583.75804950,961.1289
5673379.4440,3704833.3200,1496.6580,143,1,2,1,0,5,12,0,526,53965583.75804950,964.3945
